ply
format ascii 1.0
element vertex 348
property double x
property double y
property double z
property uchar red
property uchar green
property uchar blue
property double nx
property double ny
property double nz
property double intensity
end_header
0.020656563293104 -0.074246089928207 0.049626926067647 237 0 0 0.009786877048731 -0.150595121275153 0.988547078537869 0.347378083803690
0.021622975653387 -0.065288793823341 0.049999719330476 216 0 0 -0.080863225953377 0.020836270796362 0.996507395109396 0.316591715846357
0.023892631405283 -0.039984974585565 0.033395540996398 255 161 0 -0.071574367235403 0.213344109066510 0.974351785076349 0.610745362969425
0.025118175718196 -0.027947930468609 0.031091418798986 255 255 44 0.024106293325175 0.087459843315556 0.995876328882929 0.792596939668925
0.024340672718406 -0.039034509420904 0.046689886228709 255 255 119 -0.063910832871243 0.020461328301920 0.997745829099688 0.866692609591553
0.026503483351298 -0.015248031778343 0.032202996853560 255 251 0 0.125111768703665 -0.095328976411031 0.987552242460249 0.744316138559952
0.025775775571305 -0.025901340231889 0.047938361046795 255 91 0 0.026923494395058 -0.014568238028994 0.999531336122230 0.508643590844628
0.026103109124327 -0.022845685121942 0.047977204344423 255 255 157 -0.008129911236997 0.052518662996479 0.998586848792002 0.903410694629031
0.027072543027453 -0.013758790342448 0.047940349467332 255 255 56 -0.204497549271240 -0.012277968061001 0.978790071385254 0.804386246468852
0.027391476484046 -0.010757048799795 0.047878252788427 255 255 136 -0.338806455678806 -0.002909897304894 0.940851591957010 0.882740387909848
0.028868544536195 0.007190493217881 0.031004554761444 255 91 0 -0.177694268073366 0.081971570239514 0.980665798713476 0.508480513031522
0.029167880378501 0.010032099509401 0.030846538014540 190 0 0 -0.221526664943773 0.045105753529494 0.974110572634044 0.278012063389433
0.028429355969890 -0.001683512707626 0.050525323723062 255 91 0 -0.388589818628079 -0.403511297238337 0.828357764410783 0.509017789077276
0.029859625182762 0.016443931308704 0.031117128664175 255 135 0 0.224492821948742 -0.715309427596686 0.661766874121689 0.572882982458729
0.029043357119466 0.003600918934758 0.052434172288599 255 229 0 -0.049428657313529 -0.663677676644562 0.746383781549316 0.710988237508488
0.030443206946657 0.022026031804409 0.030637095729675 255 30 0 -0.027753279847720 -0.018952864827982 0.999435112637387 0.418426486177111
0.030829913044494 0.025561426171722 0.030989987060089 255 255 71 -0.015485471340344 0.998840205436073 0.045589957027748 0.819892182111218
0.030836087489507 0.025092860888958 0.033148919854155 255 235 0 0.252524352100659 0.047458678306899 0.966425954457714 0.719738301122518
0.031123280380160 0.027856388390038 0.032845569629897 26 0 0 0.068715210222657 -0.060954645105832 0.995772439427843 0.037832574726991
0.029957013589772 0.011781580196973 0.053975287919172 255 68 0 0.016659625716554 -0.104307277478891 0.994405575575643 0.475170417928972
0.030358967318065 0.015457236102873 0.054339400527417 255 62 0 -0.170825904781437 0.044350652903175 -0.984302560111811 0.466284965538655
0.031055360918730 0.021985599311186 0.054313835834298 255 241 0 -0.199821570571065 0.009119181431618 -0.979789865463269 0.729871467392606
0.031350633934921 0.024841054397553 0.053944729626428 255 255 224 0.164478662080128 0.003512278744039 0.986374388160173 0.969763325062864
0.031924628620209 0.032041287308570 0.046462753598163 195 0 0 0.005270569357054 -0.183659540863463 0.982975785128237 0.286208742458001
0.032031919160985 0.031267925444634 0.053755942446224 255 125 0 0.274974564035961 0.301411210216501 0.912984266835446 0.558244799102390
0.032129103512227 0.032030454959496 0.054361706653710 45 0 0 0.175749409189045 0.139818472054534 0.974455201659900 0.064969447362600
0.032320261573758 0.034074626214872 0.053320887793899 255 154 0 0.377506169466114 0.369053734337063 0.849287014611015 0.600397309757760
0.032509922951878 0.036105852541682 0.052275661191399 255 255 223 -0.020951158823459 0.149200681264801 0.988584951156993 0.968759021062397
0.032878466169386 0.040609894687710 0.047959721688490 33 0 0 -0.666871247922113 -0.191171992882199 0.720233300974241 0.047310535496081
0.032794313670786 0.038882547494721 0.051811977187147 255 255 129 -0.043497555636897 -0.605394055137137 0.794736434711677 0.876273788223756
0.032890420105053 0.039640371010083 0.052395777146267 255 114 0 -0.043497555636897 -0.605394055137137 0.794736434711677 0.542332172494397
0.033070041585977 0.042122677583655 0.049114587460663 255 1 0 -0.112990315796970 -0.864219666268589 0.490262742792791 0.376561568240589
0.033076538772913 0.041643328116840 0.051330450502777 255 204 0 0.992450436172390 0.064487592007206 0.104323929270066 0.674513435153557
0.033172247386013 0.042399358038049 0.051906377673677 252 0 0 0.685193614717221 0.455575405949117 0.568296366207849 0.370342567236051
0.033267850514662 0.043154912093747 0.052480227057102 73 0 0 0.049696066485355 0.231664674513009 0.971525490946411 0.106348127061430
0.033451914276521 0.045142384654996 0.051399521175914 38 0 0 -0.107256854374569 -0.933516105555006 -0.342116424421696 0.055355200914718
0.035314294179224 0.067597802429547 0.030838084166968 222 0 0 -0.037685583591274 -0.559862830951972 0.827727858240756 0.325320221283462
0.035497371507693 0.069068477987644 0.031839912029986 232 0 0 -0.037259631321984 -0.558816240341704 0.828454059923731 0.341226259546545
0.035588740584526 0.069802918597306 0.032338020474138 47 0 0 -0.282683345738116 0.161857879657766 0.945458699698193 0.068913686910150
0.035752260771651 0.071603428119800 0.031234652386281 255 213 0 -0.146126016108536 0.013111588566315 0.989179090792722 0.687700950147686
0.035934053775825 0.073067245528214 0.032215433930713 255 133 0 0.036029529062275 0.552691980939448 -0.832606417967565 0.569728135818991
0.036024780000403 0.073798237065564 0.032703073870664 190 0 0 0.285649876783889 -0.265913248309835 -0.920703151002895 0.278055195186994
0.036186100988120 0.075582315115580 0.031582670766033 255 113 0 -0.125130364284301 -0.037046143066967 0.991448422873293 0.541209289123515
0.036366605351295 0.077039138632843 0.032542791441718 244 0 0 -0.015002044359069 -0.009569678054366 0.999841667428891 0.358702880120347
0.036526037865668 0.078808404767147 0.031410622000696 66 0 0 0.263537694601866 -0.084934615076003 -0.960902697824200 0.095661314715215
0.036705477655124 0.080259362146758 0.032354022328476 115 0 0 -0.035409444893774 -0.541677835745116 0.839840040409363 0.168325187746746
0.037130419902711 0.084180389767331 0.032598163571918 19 0 0 -0.034379980793644 -0.533280755086188 0.845239405834426 0.026433062517754
0.037308107661815 0.085621551767943 0.033514652912557 31 0 0 -0.034379980793644 -0.533280755086189 0.845239405834425 0.044758391378423
0.037551239381776 0.088073878964733 0.032797134286483 119 0 0 -0.033623374319552 -0.527094742939256 0.849141095852254 0.174848358797988
0.037727630533866 0.089507682340913 0.033694136126781 255 43 0 -0.033427060115204 -0.525486171039242 0.850145232121295 0.437602346914758
0.037815653995347 0.090223593874944 0.034140111643319 255 92 0 -0.033490789625269 -0.524716135989508 0.850618212620983 0.510531692180848
0.037903563633467 0.090938857182043 0.034584390026355 255 134 0 -0.033357240597353 -0.523628745656882 0.851293269808666 0.571586268105705
0.037991359009422 0.091653463709130 0.035026989400644 255 149 0 -0.033161624775329 -0.523309825194569 0.851496995588998 0.593772319176537
0.038118992394215 0.093644400123905 0.031762472101879 63 0 0 -0.032589485978126 -0.518623166527616 0.854381610607667 0.092338151711573
0.038206289058152 0.094356108119638 0.032197819947031 255 102 0 -0.032652805903327 -0.517857797243252 0.854843316696695 0.524643583907505
0.038293471415028 0.095067153972970 0.032631508686965 255 255 205 -0.032457445693766 -0.517538183857045 0.855044292694237 0.950545288046214
0.038442677447600 0.096757074887850 0.031432078733828 124 0 0 -0.031976121352335 -0.513584639718563 0.857442910932509 0.181913142935969
0.038529439255364 0.097465660049153 0.031859737232699 255 249 0 -0.031976121352335 -0.513584639718563 0.857442910932509 0.740623590997359
0.038515731992599 0.095927214078621 0.037647725062516 209 0 0 -0.032247431169336 -0.515801737606961 0.856100853091865 0.307191352819416
0.038602728134257 0.096637182393662 0.038078758716198 132 0 0 -0.032247431169336 -0.515801737606961 0.856100853091865 0.193067663040239
0.038995544279317 0.102216293393473 0.030282514566015 61 0 0 0.166442485835063 0.164923028417887 0.972161145904586 0.088327718076528
0.039311088422912 0.105268904843810 0.029886006580521 255 255 15 -0.144335774896024 -0.112560205937167 -0.983105988245696 0.764128056378922
0.039269993991823 0.102572013445568 0.039376746795147 255 222 0 -0.031000034423569 -0.505531554835724 0.862251033592371 0.701242996312857
0.039988863253149 0.112226048167118 0.027391449022683 92 0 0 -0.049520134300847 0.198568585525833 0.978835161373505 0.134577838324248
0.040294606003424 0.115204097030391 0.026924476847219 255 255 30 0.125677648941541 0.193095619346029 0.973097739359156 0.779010427388229
0.040156198589411 0.110799742522027 0.039683205170619 255 91 0 -0.030294018553869 0.066809847052886 0.997305728839772 0.508978471072993
0.040550229637078 0.114518760692944 0.039570529554183 255 226 0 0.027724444363882 0.027559074442006 0.999235634172748 0.707649972077462
0.041358633947969 0.125368974572928 0.026118180570345 255 81 0 -0.028189518825895 -0.471618438299478 0.881352029375508 0.493869530889071
0.016148191337860 -0.124391217172901 0.025734611554488 255 173 0 -0.184708715686356 0.891637190672261 0.413359178632307 0.628368399289428
0.016034610894212 -0.128186055710210 0.036286033780685 138 0 0 -0.073530699591380 -0.839488791834783 0.538378867157116 0.201877069776685
0.016068153913966 -0.130313063738388 0.045747337539478 255 204 0 -0.006497401021362 -0.308910600100906 0.951068885478474 0.674154479452241
0.016457193111082 -0.126912543526030 0.046777502294007 255 255 56 0.056939214367997 -0.111513931376805 0.992130318544920 0.804600287498808
0.017071521409280 -0.120429009587117 0.044090740177022 193 0 0 0.104200617293853 -0.991921529362100 -0.072345773501522 0.283495394904421
0.016953655019703 -0.122779501170889 0.048891986889631 226 0 0 -0.054262589803157 -0.217149828009894 0.974628915815208 0.332161328610745
0.020586905668913 -0.087284979531165 0.044045293131267 46 0 0 0.390126206783022 0.892886739461008 -0.224843975404681 0.067303525863139
0.020695415598913 -0.086518768931827 0.045039440276472 255 31 0 -0.066053396801775 -0.785626478994830 0.615165005728652 0.419352876925046
0.021132326116128 -0.081340937755554 0.040932086291905 255 255 57 0.088517927507845 -0.410938158314323 -0.907355722167964 0.805905623169650
0.021524776261679 -0.077185406467560 0.039162467055400 255 65 0 -0.079038241615238 0.348273693390152 0.934054811483113 0.470066494581800
0.021275988272226 -0.081705313845251 0.047592292715463 255 186 0 -0.064931894242794 -0.779789474264744 0.622665419736762 0.647536582355428
0.021384286910270 -0.080935659402558 0.048565576809338 96 0 0 -0.064831363166528 -0.779211287562665 0.623399281107145 0.139770191322000
0.021745967179526 -0.077662812594532 0.049093611012255 188 0 0 -0.125008214687098 0.181729950897525 -0.975370273899880 0.275631051945297
0.022105788715206 -0.074398838920469 0.049588296392200 218 0 0 0.010566933430220 -0.150923539299691 0.988488960587388 0.319993957521859
0.023066340637107 -0.065440928897275 0.049961239434202 255 40 0 0.049726477082569 0.208979776231755 0.976654867700501 0.433588570192811
0.025070592615872 -0.042419081662683 0.033948639321731 255 86 0 0.075819730519244 -0.210859655898077 -0.974571482231311 0.500843927359170
0.024853829493271 -0.047794236428346 0.046869569194001 255 255 207 0.119173804663630 -0.153845427737427 -0.980881842347122 0.952738339612665
0.025761256916344 -0.039184252111383 0.046651995665116 255 255 196 -0.063910832871243 0.020461328301920 0.997745829099688 0.942131557407237
0.027469861223958 -0.019136320521177 0.031362972876865 255 255 8 0.165281094948778 -0.169776857594519 0.971523534598037 0.758063083626446
0.027188660151270 -0.026050278170757 0.047900666909939 255 200 0 0.026923494395058 -0.014568238028994 0.999531336122230 0.668228679107131
0.028822323221776 -0.006588669653812 0.032145654763595 255 121 0 -0.061791628242928 0.046154709654793 0.997021332497840 0.552944552995569
0.028579943911670 -0.013126365858777 0.048645923516976 67 0 0 -0.222755040441581 -0.038729048883072 0.974104846887891 0.098285341003958
0.029312934104543 -0.006358829503428 0.049200013852218 255 220 0 -0.479999199129120 -0.348478687439640 0.805085941521617 0.698885809926850
0.030928534492654 0.013487793958136 0.031289945377434 255 94 0 -0.094126576858389 0.018398633414138 0.995390213844507 0.512926857911388
0.031221151842413 0.016300396802048 0.031080777773376 255 29 0 -0.326157390415405 -0.531423049843906 0.781799781767694 0.417364190009977
0.031238150948024 0.014773343030304 0.037629878946491 255 255 153 0.147472962414211 0.988776568711631 0.023929532457412 0.899683728771350
0.030441097092219 0.003453560088354 0.052396863003160 255 176 0 -0.048956352495824 -0.259577381540832 0.964480615949699 0.633008444536870
0.031441592527281 0.015786807388385 0.041140849132044 255 255 65 -0.342909251104598 -0.744203390299276 0.573214235145942 0.813519067752452
0.031541078960165 0.016557226859845 0.041791180334799 255 30 0 -0.342909251104598 -0.744203390299277 0.573214235145942 0.417829713967848
0.030948064894272 0.007940704493696 0.053532665358139 70 0 0 0.135038089226818 -0.174968700253288 0.975269536276841 0.101570199791119
0.032194082613167 0.024949692681346 0.033112657935061 255 58 0 -0.306855131581488 0.948894327967563 0.073752847898196 0.459624264665692
0.031739745374784 0.018096966510621 0.043084970169391 255 146 0 -0.260819763336529 -0.652332085312192 0.711643099822744 0.589395765911576
0.031350928712455 0.011634619383009 0.053938075622264 177 0 0 0.140975593331393 -0.061437560468941 0.988104907511590 0.260191795838466
0.032048315806238 0.018198668724524 0.053982163940777 255 255 102 -0.182493867702976 0.035056904016131 -0.982581804091452 0.850101305330568
0.032813544894278 0.027576346865209 0.045588457646968 25 0 0 -0.053716485829447 -0.174118766001045 0.983258457617532 0.036195742156650
0.032735273059616 0.024695064614914 0.053907756991298 255 246 0 -0.142985787923285 -0.088741030970888 -0.985738349601040 0.736298641025279
0.033294652947846 0.031896838953307 0.046426166669215 172 0 0 -0.027578950722178 -0.205191768633016 0.978333143444665 0.251512245475880
0.033123777034989 0.028299677106828 0.054135246450187 204 0 0 0.117350673860067 0.135069679179385 0.983862287675956 0.298952887795132
0.033411772172621 0.031122436884608 0.053719093757531 255 25 0 0.242858999248265 0.316544213160502 0.916961977182659 0.411838553146893
0.033600453807245 0.033168121834244 0.052684336302351 255 255 158 -0.462138374882790 -0.055909475245075 -0.885043644708279 0.904412467527884
0.033697575667762 0.033929404055681 0.053284105226888 255 70 0 -0.061049551060873 -0.379917371101140 -0.923003652999740 0.477119104825078
0.033794590414763 0.034690227181632 0.053881758286728 51 0 0 0.377506169466114 0.369053734337063 0.849287014611015 0.074577751145249
0.034061255398361 0.038470090462422 0.048969418217198 255 255 226 0.597276971903066 0.429402879749191 -0.677401938067353 0.971373104843678
0.034077801851206 0.037479607249208 0.053420292825322 94 0 0 -0.035468150814034 0.278752403180662 0.959707824287600 0.137262107244879
0.034340376617127 0.041222488608286 0.048501708875750 58 0 0 0.682880466211900 -0.543557419906012 -0.488077453004476 0.083823612961893
0.034349950648239 0.040742438135127 0.050715888070969 255 255 100 0.678154501233244 0.648003568742173 0.346695611963143 0.848221318934634
0.034358826997998 0.040253032540209 0.052940809920749 90 0 0 0.380070632056218 -0.572359000361765 -0.726602703926477 0.131546424308382
0.034532133663710 0.042734248272180 0.049652427334498 240 0 0 -0.041499130882923 -0.600248108938824 0.798736520919964 0.352763359265197
0.034627850085838 0.043489411862552 0.050224665946889 225 0 0 0.041214385437546 0.599087387069011 -0.799622208976108 0.329975393994104
0.034723456526579 0.044244068656011 0.050794867670571 109 0 0 0.041214385437546 0.599087387069011 -0.799622208976108 0.159643987852931
0.036639284005851 0.067458090671648 0.030802678926513 221 0 0 -0.036164910061251 -0.560024235164076 0.827686507869467 0.323893312740637
0.036822596007849 0.068928740036270 0.031804499779487 255 4 0 -0.036324549533587 -0.558915499022065 0.828428628219775 0.380471257194273
0.036914079483926 0.069663167861381 0.032302604799270 93 0 0 -0.359663547670744 -0.093448527106833 -0.928390814936500 0.135414892174396
0.037074921938045 0.071463959237971 0.031199307197545 255 181 0 -0.165872421947408 0.082584327699547 -0.982683147538267 0.640455599182047
0.037256927672692 0.072927752782079 0.032180082332869 255 122 0 -0.035543947948493 -0.552617043523990 0.832677026806336 0.553319743698978
0.037347757408740 0.073658732690610 0.032667719146649 194 0 0 -0.359956293719580 -0.105680463741938 -0.926964457891969 0.284123015617553
0.037506390603054 0.075443093666033 0.031547386816350 255 59 0 -0.166935497333631 0.068230744790169 -0.983604140493193 0.461366577429558
0.037687086340533 0.076899895586163 0.032507501667982 215 0 0 -0.123063441793185 -0.034842658225971 0.991786962236227 0.315809618500055
0.037843826562215 0.078669445127920 0.031375403137723 10 0 0 0.192539280007483 0.016374624908400 -0.981152637112753 0.014450940382929
0.038023440589429 0.080120382729338 0.032318798110794 82 0 0 -0.033351318464420 -0.541810446943706 0.839838751868087 0.119376442440256
0.038445919975303 0.084041667484279 0.032563003121055 2 0 0 -0.033745973448603 -0.533606361684380 0.845059441723460 0.001960423279371
0.038623754639867 0.085482812610132 0.033479487856809 39 0 0 -0.032840369596688 -0.532963864499847 0.845500460829054 0.056285085518994
0.038864238570154 0.087935417858061 0.032762038657966 119 0 0 -0.032168660255759 -0.527249161954074 0.849101583154852 0.173636764352040
0.039040757023802 0.089369206441523 0.033659036430964 255 63 0 -0.031972209541088 -0.525640605279315 0.850105718071968 0.466805393208062
0.039128841621013 0.090085110846731 0.034105009983057 255 123 0 -0.032035883305307 -0.524870688042498 0.850578898759335 0.555701822087968
0.039216810692553 0.090800367206064 0.034549286448452 255 175 0 -0.031902246745431 -0.523783306826897 0.851253953965603 0.631549889416021
0.039304663828742 0.091514966963365 0.034991883951128 255 200 0 -0.031706598148155 -0.523464279099764 0.851457479936864 0.668632850320449
0.039426734495336 0.093506490410704 0.031727514024642 61 0 0 -0.031134110982001 -0.518777660959675 0.854342089342769 0.088086060880386
0.039514081740010 0.094218192397581 0.032162860194310 255 107 0 -0.031197386193092 -0.518012407458898 0.854803994383131 0.531287563273025
0.039601313033581 0.094929232416960 0.032596547303993 255 255 224 -0.031001997195505 -0.517692686563191 0.855004771009423 0.969100888063764
0.039747797288128 0.096619439893826 0.031397189136173 128 0 0 -0.030520424155043 -0.513739171262670 0.857403386755465 0.187756707208877
0.039834602096839 0.097328019851311 0.031824846167464 255 255 9 -0.030520424155043 -0.513739171262669 0.857403386755465 0.758475800733663
0.039829348812189 0.095788680390846 0.037612609334257 255 48 0 -0.030791872874710 -0.515956251235658 0.856061333886605 0.444561469087773
0.039916391269180 0.096498643153680 0.038043641431242 228 0 0 -0.030791872874710 -0.515956251235658 0.856061333886605 0.334103054089127
0.040295339504266 0.102079216999325 0.030247764453964 97 0 0 0.119726362708213 0.131254384083633 0.984092416763531 0.142176901856459
0.040608219715403 0.105132107613310 0.029851326132740 255 255 98 -0.040240976758332 -0.124614038832399 -0.991388927270934 0.845962829723078
0.040581110755805 0.102433738324093 0.039341694736963 255 255 9 -0.029874071185757 -0.505008452450474 0.862597242532322 0.758569993194925
0.041056570749551 0.109786055284304 0.028198563177758 255 84 0 0.061418454269245 0.335240651764756 0.940128437437948 0.498091730416604
0.041066520927276 0.106913950154417 0.039722428660867 255 20 0 -0.029634464661543 -0.043989391073004 0.998592375284956 0.404144466239444
0.041798092535234 0.117339535791323 0.026023585783395 214 0 0 0.123185571356397 0.218862705960979 0.967948568338750 0.314578676782659
0.042096021082918 0.120279108058594 0.025520096763485 255 232 0 -0.184437900888738 -0.261986704271102 -0.947283287882206 0.715346184272065
0.041853142006151 0.114381343074789 0.039535691061053 255 248 0 -0.004087148427717 0.096629791235299 0.995312000662884 0.739388561909891
0.042655090143681 0.121499755551295 0.041267725046339 255 222 0 -0.026538876539727 -0.478215038194974 0.877841708553535 0.700724785508271
0.017602467274595 -0.124543419451446 0.025694015592344 255 204 0 0.173087419603197 -0.835513791937046 -0.521495396583791 0.674577050901391
0.017505000547382 -0.128339951553418 0.036244989077444 255 255 115 -0.072043961701096 -0.839188168540504 0.539048128986685 0.862984235168540
0.018269811940960 -0.121645464094453 0.038310568987674 255 103 0 0.473894611470974 -0.423940033686341 0.771815227277099 0.526534453079108
0.017661692240531 -0.129741393838686 0.046855697568901 142 0 0 0.243199219096757 -0.208709391212467 0.947256316870175 0.207952894428416
0.017940035917760 -0.127067751187167 0.046736107124287 255 255 62 0.414618804987191 0.051060562600950 0.908561536439810 0.811072374663468
0.018436266297896 -0.122934687384059 0.048850594669586 255 112 0 0.040190789533562 -0.213863616825378 0.976036399851479 0.539490882325083
0.022147479467159 -0.086670766599842 0.044998874547753 210 0 0 0.548562516588298 -0.808960638803810 0.211333504822224 0.308021453525214
0.022434228912768 -0.083204620649596 0.042259633616283 255 255 46 -0.188530775935150 -0.710962942814944 -0.677486413494178 0.795289796414636
0.022256679798590 -0.085904116570533 0.045989985426354 255 11 0 0.630943266167144 -0.760490960091404 0.153506008017896 0.391194760937395
0.022365846238897 -0.085136960356162 0.046978087925856 137 0 0 0.218857358301184 -0.464918697251215 0.857876483920419 0.200638940529814
0.022618866855058 -0.082626409918329 0.046575472130891 255 255 242 -0.204881609871554 0.358086429368773 -0.910932288942687 0.986787636496445
0.022727897158098 -0.081857298920989 0.047551727504582 255 140 0 -0.064542779454598 -0.779788731262264 0.622706804376396 0.580479703162595
0.022836890240934 -0.081087718166004 0.048524991531027 66 0 0 -0.062798195133334 -0.779582779222696 0.623142902573249 0.096095790737337
0.023196927927255 -0.077814701023741 0.049053069194387 158 0 0 0.080319810027925 -0.187658114736080 0.978944921888243 0.231152981800477
0.023555070699156 -0.074550553216867 0.049547799071604 196 0 0 0.159229172247197 -0.127262642738642 0.979004744865238 0.287826190637972
0.025101357376978 -0.056528491415436 0.037235119872945 255 51 0 0.027620753386107 -0.080286988453707 -0.996389027171324 0.449448092491025
0.024509761941470 -0.065592033465831 0.049920899428955 255 113 0 0.049726477082569 0.208979776231755 0.976654867700501 0.540321496588348
0.026024794194551 -0.047173890564502 0.035059974168715 255 73 0 -0.101201094507606 0.221761469433749 0.969835135033294 0.481409129452913
0.025340253524523 -0.057510792942736 0.049186349965044 37 0 0 0.090091756065946 -0.201080507449716 -0.975423039000371 0.052923766427170
0.025813756202601 -0.052702639236732 0.048029723610976 206 0 0 -0.045921875492681 -0.232715717755343 -0.971460022883521 0.302489195083794
0.027469936034052 -0.032708432249193 0.032297146359892 255 255 250 -0.110300220874226 0.201104792005238 0.973339983719783 0.995032002840574
0.028436755419573 -0.023037443686674 0.030473657136752 109 0 0 0.013846041929954 -0.080658951810340 0.996645584255372 0.159188195057176
0.029170404234419 -0.016319942972825 0.031376141132548 246 0 0 0.200204121400921 -0.168235372372414 0.965202139065595 0.361800873709797
0.029894425431229 -0.009655376211329 0.032137917791897 255 31 0 0.121113513639128 -0.077089611240172 0.989640696744442 0.419866211270659
0.030506394190547 -0.003823994361168 0.032052658161950 255 20 0 0.032228523264207 0.019090863853133 0.999298184330157 0.403120675208143
0.030809265550667 -0.000928293896457 0.031975015047169 255 145 0 -0.052416378254110 0.087434544711865 0.994790291308551 0.588023262432102
0.031408762861116 0.004822414070130 0.031751628167230 255 210 0 -0.038715693737944 0.077741937130704 0.996221504621114 0.683073886731151
0.031705384279057 0.007677174914075 0.031606626908737 255 102 0 -0.172005764274740 0.095298586791925 0.980475495059272 0.524080751776111
0.031999920353284 0.010518074343002 0.031439886013964 241 0 0 -0.078011995682173 0.031787537381464 0.996445523346313 0.354316559058866
0.031329568894290 -0.001200208925213 0.051153608364260 255 255 32 0.030939983556593 -0.310137175147446 0.950188218201573 0.781272355189884
0.032601063734401 0.015148753260941 0.035398465990109 255 85 0 -0.375891708600683 -0.892456747947045 -0.249452152624595 0.499600182498028
0.032791654838041 0.017198312985717 0.034513101022144 112 0 0 0.726130595611321 -0.686029971213673 -0.045795597099667 0.164165438592477
0.033157194939706 0.021740887310000 0.030562881507611 227 0 0 0.130775184539896 -0.991016209995747 0.028012901210375 0.333191784753225
0.033267522622928 0.022028916534494 0.033358292945950 255 232 0 0.655152281679197 0.288346448393496 0.698306389423295 0.716058692018549
0.033539798054276 0.025276708399766 0.030915880684707 248 0 0 -0.122959278701518 0.966491504772133 -0.225333501691379 0.363852324414822
0.033638187490326 0.026042052466696 0.031536639881179 255 148 0 -0.122959278701518 0.966491504772134 -0.225333501691378 0.591784035193484
0.033736469061736 0.026806990633501 0.032155146937527 172 0 0 -0.593528187781436 -0.108705805814041 -0.797437983852791 0.252882941103167
0.033214787284815 0.018722230315067 0.043689914739840 255 255 165 -0.260819763336528 -0.652332085312194 0.711643099822743 0.911747556198776
0.033042620583309 0.014393708081402 0.053608654491076 255 255 80 -0.170439136263848 0.042645952703432 -0.984444931698899 0.828648791289417
0.033437698542673 0.018053179815442 0.053943279434276 255 148 0 -0.171164787215999 0.104158648908080 -0.979721180476846 0.592596842156041
0.034185612397895 0.027432671111502 0.045550051841531 70 0 0 -0.053716485829447 -0.174118766001045 0.983258457617532 0.102496447254737
0.034119966114637 0.024550063326499 0.053868999778377 255 96 0 0.042000372021827 0.130682708311509 0.990534198550659 0.515056497096197
0.034408048835099 0.027390397841712 0.053480405908886 255 195 0 0.069367234985376 0.081717132601828 0.994238651908997 0.661882069731256
0.034693924112937 0.030215029134188 0.053072551867983 255 244 0 0.138558343831536 0.200089795638223 0.969930749608505 0.734169935844093
0.035139618872964 0.036050268490158 0.047165719436755 255 1 0 -0.041276086026611 -0.608823375034460 0.792231268465195 0.375367126348920
0.035236496753071 0.036809575026810 0.047756279852282 255 227 0 -0.041276086026611 -0.608823375034460 0.792231268465195 0.708600271434364
0.035333263478969 0.037568400704013 0.048344746921718 255 255 55 -0.040711647709638 -0.608121412281377 0.792799413260170 0.804141358000010
0.035429920332321 0.038326762913616 0.048931101277101 255 255 86 -0.040322677841492 -0.606893145788785 0.793759907809839 0.833815008117512
0.035441720878265 0.037835924286684 0.051151077875285 255 255 239 0.538812910785087 -0.758360966716466 -0.366836872917880 0.984174967595820
0.035452831748610 0.037335611100926 0.053381798461640 35 0 0 -0.544972683977281 0.797489050684339 -0.258874463316085 0.050095758979268
0.035622904433830 0.039842091527824 0.050097491663362 255 255 160 0.379705705146935 0.213000806039665 -0.900252316911943 0.906913337731012
0.035719230918453 0.040599043839260 0.050677552645237 255 233 0 0.519979718358763 -0.695223844910294 -0.496270992466505 0.717800736015050
0.035731284962244 0.040109304448690 0.052902385914114 30 0 0 -0.529924676437278 -0.476229820820168 -0.701701499973056 0.042805276690288
0.035898651668761 0.042591142733191 0.049614168033507 134 0 0 -0.172973072165846 -0.053728983964772 -0.983459969997571 0.196953232231280
0.035994562193098 0.043346285233863 0.050186400798642 126 0 0 -0.610563326087935 -0.630305763558372 0.479507110751797 0.184545911623118
0.037872376441190 0.066583118246331 0.030261843488746 33 0 0 -0.035269292151314 -0.560763372812253 0.827224586640998 0.047652488840583
0.038056157448241 0.068054938580743 0.031267404293016 255 51 0 -0.165430534798558 0.097839706863026 -0.981356270636317 0.449787899848872
0.038214946992953 0.069859236523356 0.030174102944397 72 0 0 -0.357818264281584 -0.092947154494780 -0.929153871120300 0.104784528837783
0.038306349520973 0.070592639928550 0.030669104059031 255 17 0 -0.033863462347670 -0.555135597987811 0.831070233954113 0.398743484833659
0.038488802629493 0.072057627229730 0.031653556369549 255 174 0 -0.166519904812577 0.083474751180644 -0.982498390439668 0.630826517424723
0.038645374678600 0.073845563129881 0.030543038499946 46 0 0 0.245562893009921 0.078951961085607 0.966160159299344 0.066326008317944
0.038736111576816 0.074575492487213 0.031027636726195 183 0 0 -0.516287823345291 -0.278454199715293 0.809882795302071 0.268999094079689
0.038917233740276 0.076033512976440 0.031991361618480 254 0 0 -0.033107048644126 -0.546889106355209 0.836550194955495 0.373237496621954
0.039097886071628 0.077489053659433 0.032947862048170 47 0 0 0.248858469660671 -0.071946031587984 -0.965863981426417 0.067646501877960
0.039341454786396 0.079982344174583 0.032281875167757 47 0 0 -0.080473527442130 0.092827192400348 0.992424870573128 0.068742397183684
0.039850520699643 0.084624767355858 0.032985256845428 31 0 0 -0.031424563211892 -0.532964047982175 0.845554149883611 0.045157110555209
0.040028267350461 0.086064615994280 0.033898268556104 42 0 0 -0.008228737030156 0.022149239578189 0.999720810563127 0.060919935654852
0.040177288824051 0.087797894059759 0.032725250690804 118 0 0 -0.000557935662206 0.145489660136590 0.989359614852525 0.173023491818157
0.040353934584625 0.089231667938213 0.033622244230513 255 84 0 -0.030364984145385 -0.526005256771050 0.849939078750396 0.497689823652706
0.040442080320155 0.089947565256663 0.034068215738410 255 155 0 -0.031177936943157 -0.525170240817253 0.850425866497437 0.603191118397035
0.040530108827637 0.090662814709082 0.034512490208614 255 217 0 -0.031045085926263 -0.524082070534387 0.851101748314631 0.694522959586578
0.040618019726516 0.091377407736260 0.034955085764286 255 253 0 -0.030057302590338 -0.523439728833051 0.851532388603144 0.747284229821446
0.040734527452952 0.093369514247109 0.031690870376745 58 0 0 -0.030340405039514 -0.518312735085111 0.854652776553514 0.084174864437756
0.040821925280547 0.094081210259677 0.032126214804803 255 112 0 -0.030340405039514 -0.518312735085111 0.854652776553514 0.538879304478058
0.040909205512933 0.094792244478476 0.032559900220229 255 255 244 0.425146845805849 0.057836306632447 0.903274665390575 0.989393097324694
0.041052967881044 0.096482736573774 0.031360617343372 134 0 0 -0.029064669871936 -0.513892666105419 0.857361984629771 0.196045562818284
0.041139815692593 0.097191311356588 0.031788272850736 255 255 31 -0.029064669871936 -0.513892666105419 0.857361984629771 0.779736592805648
0.041143016723649 0.095651084435100 0.037575800460939 255 146 0 -0.029336257501330 -0.516109728254268 0.856019936915678 0.589039271741598
0.041230105497991 0.096361041677244 0.038006830940611 255 73 0 -0.029336257501330 -0.516109728254268 0.856019936915678 0.482235927190743
0.041595185270151 0.101943068472342 0.030211339002112 138 0 0 0.040802274571295 0.124306481394455 0.991404596052055 0.202520045126079
0.041905401443200 0.104996236344687 0.029814973774560 255 255 188 0.156022664382224 0.174242274080789 0.972263625835209 0.934223616824426
0.041892278513372 0.102296399138685 0.039304952747255 255 255 86 -0.028869015931220 -0.506694537173054 0.861642168140666 0.833927032001668
0.042348357107428 0.109650746928098 0.028162359559431 255 144 0 0.061899640867856 0.335032601527456 0.940171043148094 0.586198273189311
0.042375003968583 0.106776889120725 0.039685759731564 255 69 0 0.033465267222816 -0.039350028842167 0.998664934359782 0.476096162499772
0.043081767869966 0.117205073114697 0.025987605608497 255 0 0 0.103889838151989 0.227687493389501 0.968176278826723 0.374334478249850
0.042852128448265 0.111220196821132 0.040007979216867 23 0 0 -0.029773732022649 0.079232529388035 0.996411426654782 0.032996501693475
0.043505086206631 0.121702565070625 0.024226920277390 96 0 0 0.062241553244699 0.448081088050735 0.891823596671986 0.140855893753347
0.043540470761239 0.117935613211152 0.039349082263883 255 183 0 0.152738244970667 -0.254096548277098 0.955042393130768 0.643219509542490
0.044037825967111 0.122047040885094 0.041603424525623 240 0 0 -0.026538876539727 -0.478215038194974 0.877841708553535 0.352092076233760
0.018864890565941 -0.129219809007828 0.035052779950793 217 0 0 -0.071065086218661 -0.839344453817427 0.538934728298949 0.318802231428180
0.019086012909306 -0.127764718486890 0.037348114650489 217 0 0 -0.070007524953080 -0.839368538499547 0.539035623152198 0.318689772334011
0.019036081565927 -0.130622644730223 0.045662579617125 255 191 0 0.137738476758524 0.013477106327369 0.990376938152985 0.655704024868157
0.019312346211083 -0.127951937249464 0.045552770502657 255 255 14 0.307903333714210 -0.095454440227522 0.946617127950116 0.763724724183717
0.020131889759634 -0.119998750683475 0.045120745932398 255 146 0 -0.070269549719000 -0.827114032836122 0.557624037383482 0.589527539152726
0.020242527422612 -0.119259900929788 0.046231868165921 255 30 0 -0.067942700584575 -0.827249986035036 0.557710722545575 0.418590516435032
0.023740704685528 -0.085081467170543 0.043586328193020 255 123 0 0.481745813082954 -0.568482725388280 -0.666894566263782 0.555279944387848
0.024018727933446 -0.081642039149982 0.040849585173261 42 0 0 -0.137174016819821 0.527618004983879 0.838333185509405 0.060190835626486
0.023850551629477 -0.084313914013433 0.044571590169965 255 255 207 -0.329470746905065 0.902682090054755 0.276792469601679 0.952792990096100
0.024644359537826 -0.075039429268191 0.038664568439373 124 0 0 -0.127302449176392 0.315195570407825 0.940449806650508 0.181968847878068
0.024886364972273 -0.072604705645397 0.038236253000339 255 74 0 -0.117803113941752 0.269081523981489 0.955885746204757 0.483712383817561
0.025126815924873 -0.070181268580516 0.037795495286492 60 0 0 0.050255329652745 -0.077059286473876 -0.995759141665107 0.087228300254992
0.024538424764540 -0.078736813370411 0.048049136054408 255 255 75 0.049928399414537 -0.132726031753953 0.989894416302441 0.822956982978241
0.025711820018802 -0.064591607726779 0.037794377318839 251 0 0 -0.056059938566821 0.022212611687122 0.998180285905268 0.368634460022179
0.026289908839984 -0.059044087006019 0.037709898555152 255 255 86 0.027620753386107 -0.080286988453707 -0.996389027171324 0.833953416577998
0.025953236465638 -0.065742107205941 0.049878699404938 255 177 0 0.048761411889171 0.199153924390163 0.978754330315106 0.634808598997040
0.026777077778182 -0.057660178059046 0.049144338683982 255 13 0 -0.055745939272023 -0.225737245444238 -0.972591942324183 0.393427032327594
0.027245707839264 -0.052851518965342 0.047987851494463 255 255 89 -0.104295774475232 0.219498901102797 0.970021970803381 0.836786682142645
0.028043747102440 -0.044949059417363 0.047019586845343 212 0 0 -0.105336772158688 0.051342156137081 0.993110340009801 0.311598454424967
0.029825382516899 -0.023181820344946 0.030433032463205 22 0 0 -0.073378133482190 -0.115811647301910 0.990557071488507 0.030938948270574
0.030555428951360 -0.016463948983212 0.031335617279437 255 255 253 0.200204121400921 -0.168235372372415 0.965202139065595 0.998271686680106
0.030014591507811 -0.026345127578524 0.047819816036493 255 234 0 -0.104486039845413 -0.868614962964461 -0.484345655076693 0.718889200837083
0.031580621547860 -0.006876460632987 0.032066713872181 255 3 0 0.132563882344378 -0.012537143424151 0.991095170572710 0.378594088410466
0.031075338935508 -0.016435105315547 0.048612511928194 255 232 0 -0.094098297615656 -0.172001595089301 0.980592148486093 0.715472423567832
0.032482789778408 0.001811135515364 0.031834383841543 140 0 0 0.033253432916182 0.035592635011603 0.998812982260553 0.205742230315010
0.031804896915809 -0.009638207930958 0.049224950310354 255 255 247 0.238282957000683 0.085333656943639 -0.967439610206051 0.991744614447029
0.033366044526732 0.010376019674267 0.031399897680202 180 0 0 -0.035042672665459 -0.059784094004673 -0.997596047103487 0.264578906990138
0.033656255015890 0.013203173455339 0.031211853767942 255 55 0 -0.036379289586559 -0.066464681654916 -0.997125364927444 0.455040797059304
0.033944361259311 0.016016244213559 0.031002811752980 255 172 0 0.037107871878277 0.070789418996279 0.996800814607831 0.627622508250674
0.033236737413553 0.003161836321885 0.052316840235499 201 0 0 0.081847543618632 -0.197117040489498 0.976957446336461 0.295141507723528
0.034343551606650 0.019094149560477 0.033582114650735 255 255 218 0.114245517338226 0.257744530770285 0.959435103915906 0.963277468196594
0.034613422186305 0.022367003732196 0.031154467296832 255 255 91 0.390250487465799 -0.884532669355035 0.255551391849783 0.839427179868672
0.033639006254434 0.006875224335970 0.052775779207399 255 118 0 0.173700371784750 -0.153849632536957 0.972706775657538 0.548639983306032
0.034894816759935 0.025135800783637 0.030876208177488 61 0 0 0.686241221208864 0.523920121909150 -0.504559899489118 0.088935647177109
0.034038170643704 0.010571056275772 0.053192559153177 255 181 0 -0.159489008802072 0.132569657347787 -0.978257911811616 0.641140843371318
0.034434216962858 0.014248988601029 0.053567918411330 255 120 0 -0.193085604512488 0.074032359114777 -0.978384974912201 0.550374193142595
0.035117571681411 0.020781910377123 0.053562229144503 255 211 0 0.236853189515510 0.014092732319129 0.971443236381885 0.685720103758342
0.035216905765236 0.021549817641170 0.054197360471944 56 0 0 -0.112225778844645 0.019394445711686 -0.993493447405794 0.081374566154508
0.035504710124966 0.024406050842343 0.053828458074460 211 0 0 0.149990291289169 0.133658642315767 0.979611290182640 0.309660752388069
0.036034858693218 0.031610876744243 0.046347695639175 128 0 0 -0.040367090549912 -0.616682630739143 0.786176208585064 0.187368669334944
0.035888693830065 0.028011130844300 0.054056072629499 2 0 0 0.091927551799371 0.138155170078420 0.986135119646784 0.001430474945998
0.036171636444610 0.030834415286023 0.053640061208583 103 0 0 0.182332080413348 0.207997006076378 0.960985045625270 0.150996461089413
0.036354790293744 0.032880676077325 0.052605459538444 255 174 0 0.549256181956385 -0.087476076430561 0.831062923390888 0.631048822660830
0.036452361804111 0.033641909813516 0.053205214724871 172 0 0 -0.038831431125724 -0.615538273131652 0.787149766097172 0.252000549338874
0.036701768948526 0.037426073102324 0.048304672693096 255 197 0 -0.039292110002494 -0.608063102374942 0.792915754429001 0.664928182138894
0.036798635612918 0.038184412716339 0.048891020480572 255 213 0 -0.039292110002494 -0.608063102374943 0.792915754429001 0.688462843119311
0.036813608572586 0.037693243120646 0.051110904562035 255 255 114 -0.039181190409311 -0.607599318387909 0.793276687299368 0.861758383653864
0.036910450042290 0.038451497422959 0.051696742330108 255 115 0 0.038467441707908 0.607308993819688 -0.793533894647334 0.543871390274504
0.037007177314859 0.039209253616088 0.052280523649068 165 0 0 -0.039371086154509 -0.606507540656306 0.794102336416443 0.241582681894187
0.037184978068164 0.041213080255467 0.051215426224592 220 0 0 -0.550867704956627 0.325070671860534 0.768683179165486 0.322812410162314
0.037281281257296 0.041969045618710 0.051791335505079 33 0 0 -0.432882181681222 0.216869548549165 0.874974637172408 0.048252996229763
0.039197346207140 0.066445311821876 0.030223026701947 16 0 0 -0.034001515952453 -0.560655154186198 0.827351010755039 0.022513851622946
0.039381365830782 0.067917105879787 0.031228579769155 255 51 0 -0.408819830110142 -0.060156450558462 0.910630302573400 0.449117484299052
0.039537487782399 0.069721680769492 0.030135355494454 22 0 0 -0.276577804761098 0.159602242567507 0.947645420017928 0.031636637281110
0.039629001488476 0.070455071887351 0.030630352983946 222 0 0 -0.032928628120731 -0.555233493483506 0.831042401544101 0.325169647022321
0.039811671173647 0.071920035219861 0.031614798217812 255 136 0 0.032280617372031 0.553570383212259 -0.832176539306603 0.575155947110446
0.039993863769686 0.073382557587398 0.032591894244413 183 0 0 0.305161013058294 -0.139731346942321 -0.941993581077345 0.268317244975805
0.040147121061142 0.075167478654886 0.031471713847373 194 0 0 -0.031790461082763 -0.548144989323812 0.835778940428235 0.284208808621898
0.040328199570319 0.076624237780836 0.032431816304840 148 0 0 -0.031575876862288 -0.546404761680174 0.836925803410081 0.216997648205478
0.040659517414029 0.079845246777638 0.032243253582162 12 0 0 -0.181539637274759 0.131487715092002 0.974553405862415 0.016642348409874
0.041166194615685 0.084487915137317 0.032946702843861 27 0 0 -0.030609943522608 -0.532566610866185 0.845834402438236 0.038343757055543
0.041344084673242 0.085927747472664 0.033859709672632 64 0 0 -0.115871150844378 -0.000096062376058 0.993264248412284 0.093093176982052
0.041490387322124 0.087661307863871 0.032686770467495 118 0 0 0.431957751864343 -0.031537975807731 -0.901342252802039 0.173015899672578
0.041578833638242 0.088378514603039 0.033136112531679 249 0 0 0.724297295776329 -0.111337067727408 0.680439185145124 0.365905167546117
0.041723583980325 0.090098950312373 0.031957179428368 4 0 0 0.398992905844091 -0.428086442038079 -0.810892507814239 0.005013727040051
0.041811590972481 0.090813740546120 0.032400313282541 240 0 0 -0.069800378579066 -0.445079409202930 -0.892766613765205 0.351573256501183
0.041899478907192 0.091527880217759 0.032841755894306 255 209 0 -0.094848568430282 -0.995491298261518 0.000907828355929 0.682184226877922
0.041987246786785 0.092241349111935 0.033281544560064 255 255 238 0.857661402181227 0.436028717811195 -0.272572699389459 0.983780906583405
0.042019272870860 0.091954707043336 0.035357529174031 255 255 120 0.084110258637397 0.993556275484038 -0.075969677097096 0.867944028111623
0.042107002990025 0.092667974172880 0.035796788820920 255 255 139 0.026924897935386 0.521270717216570 -0.852966522932578 0.886013458764182
0.042358186421913 0.096346965219989 0.031322363437438 141 0 0 -0.045659341377351 0.401010464566641 0.914934878476623 0.207306670529221
0.042445077238100 0.097055534857290 0.031750017364536 255 255 56 -0.027342679511110 -0.512348964602870 0.858341957699563 0.805035940850559
0.042456732904319 0.095514426505593 0.037537298525089 255 249 0 -0.027489638886359 -0.516305377979876 0.855963244785052 0.740335729153571
0.042543867997932 0.096224378258573 0.037968327326834 255 179 0 -0.027921920606861 -0.514902296066197 0.856794019502577 0.637174542299078
0.042895078783965 0.101807848103632 0.030173238292152 184 0 0 0.061872039012671 0.314844511694013 0.947124481915958 0.269768098586042
0.042804561234857 0.098350238501544 0.039251659192965 36 0 0 -0.027109724938958 -0.514026489817186 0.857345805716665 0.052690695532164
0.043422365788246 0.107196478483826 0.028955873469652 255 255 145 -0.196704793721377 -0.251158737703846 -0.947748127195217 0.891653869652288
0.043289478577721 0.102863422463751 0.039681994197484 146 0 0 0.004512723613918 -0.069796149075841 0.997551067815461 0.214553799986277
0.043856117114945 0.111820968777499 0.027283061691597 251 0 0 0.062654005767230 0.337250201230691 0.939327832724645 0.368175183218909
0.044365490345866 0.117071527034498 0.025949970995130 255 43 0 -0.104563827649768 -0.868664668230529 -0.484239713484112 0.437279572092663
0.044157926469704 0.111084351390085 0.039969701871921 50 0 0 -0.025333221325446 -0.507448792195839 0.861309439862504 0.072132350908674
0.044783386624442 0.121569580894042 0.024189442287730 151 0 0 0.062241553244699 0.448081088050735 0.891823596671986 0.221887145852882
0.044865571308606 0.122250550522140 0.024556548574377 255 255 66 0.062241553244699 0.448081088050735 0.891823596671986 0.814943594554897
0.044923857754681 0.118487336556812 0.039690291385783 56 0 0 -0.023600409576981 -0.478640898998798 0.877693517392843 0.080764374238811
0.045255401131256 0.121228291050985 0.041193166036518 255 255 24 0.023212642328074 0.478215570729501 -0.877935670278869 0.773615810425042
0.020334436973745 -0.129371505210515 0.035007975748678 204 0 0 -0.070007524953080 -0.839368538499547 0.539035623152198 0.298700670438194
0.020557451853415 -0.127916612235377 0.037303251199669 231 0 0 0.069268893472999 0.839557699858764 -0.538836421379335 0.339001904908486
0.020520124424688 -0.130775845192476 0.045617332596867 255 181 0 0.256243604708794 -0.000781495737945 0.966611920219410 0.641015211132867
0.020794360596625 -0.128104928966254 0.045507583290563 255 255 2 0.035460404746737 0.037458215159162 0.998668834905890 0.751396451453317
0.021607729799250 -0.120151106972793 0.045075740958581 255 175 0 -0.067942700584574 -0.827249986035037 0.557710722545575 0.632447226824908
0.021719259194429 -0.119412350342183 0.046186835251627 255 63 0 -0.067498519756601 -0.827041061272253 0.558074397191211 0.467041089376906
0.021830784829718 -0.118672672299431 0.047294780090619 121 0 0 -0.067498519756601 -0.827041061272253 0.558074397191210 0.177339831112022
0.025189897986489 -0.085231083000955 0.043542109957842 250 0 0 0.757974422011834 0.296197672397868 -0.581155499364767 0.366995902812135
0.025162403669578 -0.086205151567920 0.045903196391159 141 0 0 0.790806498392534 0.353915127535981 -0.499368766145150 0.206648555638054
0.025706312678645 -0.079321100988725 0.040407123516241 255 162 0 -0.189807427507790 0.383712532814752 0.903735488195392 0.612326882279632
0.025410972309871 -0.083695610493411 0.045509565116978 255 255 211 0.787412897984147 0.004685370503750 -0.616408124047250 0.956785379482255
0.026319925106464 -0.072752708318295 0.038192503196884 55 0 0 -0.116059705343644 0.259085408633295 0.958856034985891 0.080681449198323
0.025742254520215 -0.081388723176107 0.048438205602467 6 0 0 0.080363532592829 -0.142173043673940 0.986574137245493 0.007159989134948
0.026099006849548 -0.078115368893607 0.048966376518012 94 0 0 -0.015989773251954 -0.048229740758105 0.998708275352596 0.136709273869371
0.026343792097644 -0.075623706043087 0.048511355074474 255 255 253 0.126396359326243 -0.057635761450579 0.990304033795220 0.997799716858637
0.027713208662901 -0.059191035497601 0.037666452121026 213 0 0 0.027620753386107 -0.080286988453707 -0.996389027171324 0.311927265369008
0.027396761108681 -0.065891149796755 0.049834639456354 255 231 0 -0.046370136768918 0.024244696374730 0.998630064194810 0.715144337964787
0.027979634764798 -0.060231536129011 0.049661881985022 255 46 0 -0.051653609379532 -0.217044782730078 -0.974794063855397 0.442760113261215
0.028446642192027 -0.055397806049601 0.048527820513199 255 255 181 -0.104295774475232 0.219498901102797 0.970021970803381 0.927553095480050
0.029242906688569 -0.047458106698195 0.047599682478761 44 0 0 -0.136696917386202 0.161743082801885 0.977319358215549 0.064249266315642
0.031005786114348 -0.025530289236424 0.031060976510646 206 0 0 -0.142867969540745 0.144758729451639 0.979098388072850 0.302866039858692
0.031835816412873 -0.017387887069314 0.030539623508257 195 0 0 0.111715464153774 0.101805972968249 0.988511607891832 0.286573021496075
0.031427632213207 -0.026491038417039 0.047776659480706 255 180 0 -0.104486039845349 -0.868614962963188 -0.484345655078989 0.639865653046769
